# .PCD v0.7 - Point Cloud Data file format
VERSION 0.7
FIELDS x y z
SIZE 4 4 4
TYPE F F F
COUNT 1 1 1
WIDTH 1574
HEIGHT 1
VIEWPOINT 0 0 0 1 0 0 0
POINTS 1574
DATA ascii
0.13334224 -0.084816851 -0.2937603
0.14008676 -0.090025574 -0.31194338
0.13540469 -0.087923102 -0.30479744
0.13956997 -0.091581747 -0.31762525
0.15977645 -0.10595597 -0.36764497
0.13811888 -0.092578597 -0.32137358
0.15163693 -0.10274428 -0.35682297
0.1330065 -0.09111125 -0.31656429
0.14547035 -0.10075636 -0.35023239
0.11410259 -0.079918273 -0.277922
0.1297038 -0.091877803 -0.3196536
0.13373889 -0.095825031 -0.33353314
0.13303445 -0.09642867 -0.33578113
0.13053879 -0.095732883 -0.33350334
0.12206957 -0.090587601 -0.31571525
0.10148484 -0.07621906 -0.26575238
0.13183109 -0.10021773 -0.34957761
0.11004288 -0.084687144 -0.29552943
0.12666225 -0.098695591 -0.34455928
0.13108489 -0.10343465 -0.36125505
0.12467362 -0.099636972 -0.34813577
0.1366498 -0.11062641 -0.38669258
0.1239019 -0.10162602 -0.35537702
0.10932272 -0.090863548 -0.31787044
0.13171425 -0.11095365 -0.38830811
0.13330829 -0.11383475 -0.39854985
0.11999176 -0.10388658 -0.36386362
0.12905361 -0.11330585 -0.39700973
0.12008029 -0.10693362 -0.3748273
0.11475169 -0.10366938 -0.36352468
0.12427802 -0.11392682 -0.39964461
0.11857723 -0.11032325 -0.38714895
0.142039 -0.13415419 -0.47095162
0.12892753 -0.12364393 -0.43421453
0.12870958 -0.1253636 -0.44041336
0.13253516 -0.13113877 -0.46086717
0.11324169 -0.1138558 -0.40027055
0.10369884 -0.10597041 -0.372679
0.11490919 -0.11938343 -0.41999513
0.1058638 -0.11185002 -0.39362633
0.1090408 -0.11719298 -0.41256809
0.1055119 -0.11538973 -0.40635443
0.10430401 -0.11610571 -0.40900934
0.10780748 -0.12218749 -0.43057242
0.11427943 -0.13192128 -0.46502024
0.099754132 -0.11732635 -0.41370243
0.099542595 -0.11932905 -0.42089337
0.098191991 -0.12001801 -0.4234513
0.1013919 -0.12640777 -0.44612834
0.099006653 -0.12595309 -0.44465336
0.095488295 -0.12400792 -0.43791187
0.089268371 -0.11839689 -0.41821522
0.085962057 -0.11649023 -0.41159391
0.098381802 -0.13628334 -0.48165929
0.098547228 -0.13961506 -0.4935655
0.11246481 -0.16303796 -0.57651973
0.11668997 -0.17319079 -0.61257738
0.11592288 -0.17624867 -0.62354845
0.11255766 -0.17541052 -0.62073451
0.10949349 -0.17501056 -0.61946672
0.10898296 -0.1787786 -0.63295138
0.10578815 -0.17822795 -0.63114506
0.10372973 -0.17961445 -0.63619584
0.1003571 -0.17873952 -0.63323331
0.099236324 -0.18194172 -0.6447134
0.094237812 -0.17801303 -0.63092077
0.093466774 -0.18207395 -0.64544177
0.087841578 -0.17663589 -0.62628478
0.085551336 -0.17776494 -0.63040572
0.083636723 -0.17977925 -0.63766444
0.077086166 -0.17161645 -0.60881811
0.07284376 -0.16817799 -0.59672081
0.070663758 -0.16941971 -0.60122484
0.063536897 -0.15842603 -0.56229961
0.062914819 -0.16341138 -0.5800817
0.057598159 -0.15610661 -0.55423158
0.052661713 -0.14921513 -0.52983814
0.050756317 -0.15066463 -0.53505635
0.050127562 -0.15623817 -0.55492014
0.046458475 -0.15242349 -0.54143691
0.044630513 -0.154561 -0.54909277
0.04226853 -0.15499184 -0.5506832
0.037512437 -0.14614896 -0.51931804
0.036478247 -0.15159442 -0.53871959
0.032136299 -0.1430897 -0.5085423
0.029541714 -0.1416553 -0.50348687
0.024563501 -0.12759967 -0.45356411
0.023602907 -0.13375603 -0.47548154
0.01920096 -0.11969156 -0.4255124
0.014992187 -0.10383961 -0.36917949
0.013375525 -0.10422247 -0.37056035
0.010309061 -0.091803998 -0.32642207
0.01028372 -0.10684139 -0.37990507
0.0075991373 -0.094740324 -0.33688787
0.0059922701 -0.093383878 -0.33207384
0.0044145547 -0.091728911 -0.32619587
0.002935187 -0.091484241 -0.32533091
0.0014382222 -0.08965335 -0.31882301
-0 -0.090545528 -0.32199672
-0.0013778327 -0.0858889 -0.30543596
-0.0027611735 -0.086060576 -0.30604357
-0.0041738041 -0.086726412 -0.30840656
-0.0054694759 -0.085236624 -0.30310214
-0.0067351474 -0.083968744 -0.29858515
-0.0080839805 -0.083987482 -0.29864147
-0.0093554454 -0.083311878 -0.29622716
-0.010589223 -0.082511522 -0.29336762
-0.011897256 -0.082403347 -0.29296747
-0.013197683 -0.082269385 -0.29247379
-0.014576596 -0.082604557 -0.29364613
-0.015913645 -0.082666382 -0.29384482
-0.01747945 -0.083815612 -0.2979067
-0.018476287 -0.082267299 -0.29237881
-0.019911291 -0.082746319 -0.29405478
-0.021037679 -0.081963092 -0.29124334
-0.022367939 -0.082019597 -0.29141417
-0.02360693 -0.081753731 -0.29043797
-0.025191052 -0.082648173 -0.29358184
-0.025773097 -0.080329888 -0.28531232
-0.027778288 -0.082456842 -0.29282957
-0.028831502 -0.081693061 -0.29007849
-0.029905511 -0.081052035 -0.28776228
-0.031386163 -0.081520639 -0.28938398
-0.032723036 -0.08159323 -0.28959787
-0.034771383 -0.083366036 -0.29584357
-0.035701234 -0.082425207 -0.29245704
-0.036999144 -0.082370967 -0.2922152
-0.037721895 -0.081084162 -0.28759986
-0.03928015 -0.081619225 -0.28944528
-0.040597815 -0.081635952 -0.28945056
-0.041498687 -0.080839746 -0.28657228
-0.042894538 -0.081026785 -0.28717831
-0.044362742 -0.081335478 -0.28821355
-0.045357272 -0.08078289 -0.28619534
-0.046787586 -0.081015602 -0.28695792
-0.048195459 -0.081197917 -0.28753999
-0.049728058 -0.081575252 -0.28881067
-0.051210493 -0.081853054 -0.28972676
-0.052276328 -0.081467733 -0.2882942
-0.051782642 -0.078730121 -0.27853853
-0.054765441 -0.081282638 -0.28749743
-0.055059306 -0.079818368 -0.28224632
-0.057326216 -0.081215911 -0.28711352
-0.058048084 -0.080411084 -0.2841928
-0.060708784 -0.082268625 -0.29067904
-0.060407996 -0.080119289 -0.28300667
-0.06443534 -0.083680339 -0.29550219
-0.064164594 -0.081628136 -0.28817257
-0.065216802 -0.081307389 -0.28695649
-0.067493297 -0.082495645 -0.29106373
-0.06773524 -0.081199229 -0.28640318
-0.071120046 -0.083648212 -0.29495054
-0.077989556 -0.090029173 -0.31735125
-0.07280004 -0.082510546 -0.29075617
-0.072260775 -0.080436863 -0.28335756
-0.077376872 -0.084620751 -0.29799893
-0.081109948 -0.087173939 -0.30688855
-0.082949564 -0.087640062 -0.30842584
-0.085966513 -0.089313805 -0.31420913
-0.082717806 -0.084529772 -0.29727611
-0.079057783 -0.079486519 -0.27944216
-0.085608833 -0.084706865 -0.29768932
-0.1006356 -0.098019436 -0.3443509
-0.088355049 -0.084734164 -0.29757065
-0.12024762 -0.11357248 -0.39869902
-0.095104776 -0.088484682 -0.31051251
-0.092612162 -0.084898435 -0.29781574
-0.090302512 -0.081581421 -0.28607151
-0.10564265 -0.094076633 -0.32976058
-0.10465133 -0.091881268 -0.32194063
-0.11576066 -0.10022338 -0.35103321
-0.09882573 -0.084389366 -0.29545784
-0.12249454 -0.10318714 -0.36112738
-0.11676218 -0.09704686 -0.33950168
-0.1167196 -0.095735006 -0.33477667
-0.13411871 -0.10857733 -0.37953007
-0.13277473 -0.10611124 -0.3707571
-0.12394303 -0.097799249 -0.34157288
-0.1127919 -0.087887771 -0.30682778
-0.10477044 -0.080629565 -0.28136984
-0.14336789 -0.10898796 -0.38016978
-0.11220395 -0.084269531 -0.29382187
-0.1250018 -0.092763595 -0.32329902
-0.14261974 -0.10459267 -0.36436802
-0.1606767 -0.11646488 -0.40555063
-0.15071534 -0.1079888 -0.37587091
-0.11830238 -0.083801411 -0.29155487
-0 0 1
-0.13302279 -0.092134871 -0.3202638
-0 0 1
-0.148351 -0.10051785 -0.34909073
-0.1860676 -0.12471777 -0.43294019
-0.18783957 -0.12456608 -0.4322181
-0 0 1
-0.17588243 -0.11420675 -0.39591327
-0.1864078 -0.11979341 -0.41509053
-0.19485667 -0.12394521 -0.42928001
-0.19851168 -0.12499467 -0.43271589
-0.19143586 -0.1193339 -0.41292882
-0 0 1
-0.20217454 -0.12355686 -0.42714658
-0.19976063 -0.12089635 -0.41775542
-0 0 1
-0 0 1
-0 0 1
-0.25559014 -0.14890212 -0.51357335
-0 0 1
-0 0 1
-0 0 1
-0 0 1
-0 0 1
-0 0 1
-0 0 1
-0 0 1
-0 0 1
-0 0 1
-0 0 1
-0 0 1
-0 0 1
-0.23513497 -0.12113578 -0.41510388
-0.33869362 -0.17305642 -0.59275293
-0 0 1
-0 0 1
-0 0 1
-0 0 1
-0 0 1
-0 0 1
-0 0 1
-0 0 1
-0 0 1
-0 0 1
-0 0 1
-0 0 1
-0 0 1
-0 0 1
-0 0 1
-0 0 1
-0 0 1
-0 0 1
-0 0 1
-0 0 1
-0 0 1
-0 0 1
-0 0 1
-0 0 1
-0 0 1
-0 0 1
-0 0 1
-0 0 1
-0 0 1
-0 0 1
-0 0 1
-0 0 1
-0 0 1
-0 0 1
-0 0 1
-0.34631729 -0.13663363 -0.46114129
-0 0 1
0.1641341 -0.064946055 -0.2156449
0.16299917 -0.064902611 -0.2155742
0.16501497 -0.066121116 -0.21969727
0.16455553 -0.066357009 -0.22055796
0.16610098 -0.06740956 -0.22413546
0.16082133 -0.065687969 -0.21848908
0.16901061 -0.069481179 -0.23118913
0.16739823 -0.069268107 -0.23056409
0.16656831 -0.069378152 -0.23101526
0.16180129 -0.06783893 -0.22597386
0.16051736 -0.067749292 -0.22575991
0.16615213 -0.070598193 -0.23534238
0.15937749 -0.068177201 -0.22735877
0.16432877 -0.070773423 -0.2361078
0.16098692 -0.069809034 -0.23298122
0.16153403 -0.070529357 -0.23547773
0.16151239 -0.071009628 -0.2371752
0.15794641 -0.069927439 -0.23365401
0.15855943 -0.070693202 -0.23630787
0.16618955 -0.074620567 -0.24953736
0.15864776 -0.071743056 -0.24001299
0.16300312 -0.07424292 -0.24847868
0.15954907 -0.073196299 -0.24507765
0.16045187 -0.074147776 -0.24836738
0.16166475 -0.075257592 -0.25219116
0.1607534 -0.075387672 -0.25273424
0.15917385 -0.075203985 -0.25222614
0.15882041 -0.075601175 -0.25366729
0.15223102 -0.073013499 -0.24509069
0.14923869 -0.072124705 -0.24221252
0.15768823 -0.076794446 -0.25800744
0.15673514 -0.076922007 -0.2585496
0.15719284 -0.077749342 -0.26144585
0.15367787 -0.076609299 -0.25772664
0.15447524 -0.077617981 -0.26123643
0.15349674 -0.077743314 -0.26177543
0.15923871 -0.081301935 -0.27388102
0.15218741 -0.07833349 -0.26400033
0.1591458 -0.082586542 -0.27846003
0.14944187 -0.078191727 -0.26376164
0.14965189 -0.07895413 -0.26645482
0.15108952 -0.080382459 -0.27139911
0.1514612 -0.08126308 -0.27449808
0.14513732 -0.078535706 -0.26540706
0.15263562 -0.083305135 -0.28165466
0.15129466 -0.083291315 -0.28173769
0.14857961 -0.082514122 -0.27923763
0.14708 -0.082404166 -0.27899438
0.13361673 -0.075529531 -0.25583735
0.14672661 -0.08368735 -0.28360116
0.13064015 -0.075189613 -0.25492197
0.14341304 -0.083298281 -0.28254431
0.13860187 -0.08124923 -0.27572173
0.13396202 -0.07926324 -0.26910681
0.13289359 -0.07937286 -0.26960382
0.13182028 -0.079481632 -0.27009821
0.16106139 -0.098046482 -0.33334017
0.13351311 -0.082065493 -0.27913657
0.14839825 -0.092109106 -0.31344324
0.14068459 -0.088185877 -0.30023083
0.15048289 -0.095271066 -0.32450157
0.14043301 -0.089806542 -0.30602914
0.12417345 -0.080218881 -0.27348283
0.12914665 -0.084291808 -0.28749934
0.1338973 -0.088302806 -0.30131686
0.12872036 -0.085782267 -0.29284871
0.14319819 -0.096445858 -0.32940152
0.14258009 -0.097062148 -0.33165565
0.14823285 -0.10200714 -0.34870872
0.10517728 -0.073173612 -0.25025377
0.14440554 -0.10158164 -0.34756371
0.13780048 -0.09802451 -0.33554137
0.15135555 -0.10889041 -0.37289986
0.12945732 -0.094206594 -0.3227559
0.15104914 -0.11119717 -0.38113236
0.14482379 -0.10786857 -0.36988366
0.11378773 -0.08576104 -0.29420322
0.12065145 -0.09202978 -0.31584328
0.11144368 -0.086042985 -0.29542243
0.11734916 -0.091721021 -0.31505063
0.1070364 -0.084706247 -0.29107779
0.13098036 -0.10496704 -0.36085072
0.12618123 -0.10241748 -0.3522315
0.11939605 -0.098168716 -0.33775783
0.1109608 -0.092433609 -0.31815514
0.14990467 -0.12654001 -0.43572471
0.15564637 -0.13316226 -0.45871112
0.14168277 -0.1228763 -0.42344648
0.13036864 -0.11463431 -0.39519882
0.13942379 -0.12432329 -0.42876828
0.12402166 -0.11216915 -0.38700008
0.11864322 -0.10885987 -0.37572598
0.14091587 -0.13119732 -0.45299399
0.14273708 -0.13487639 -0.4658711
0.14353004 -0.13768061 -0.47573295
0.15357545 -0.14958304 -0.51704884
0.15106794 -0.14943978 -0.51674044
0.1567999 -0.15757203 -0.54505515
0.15861344 -0.16196541 -0.56044996
0.14755365 -0.1531419 -0.53010255
0.13315105 -0.14049706 -0.48649961
0.13254467 -0.14222771 -0.49265948
0.13445216 -0.14676204 -0.5085361
0.14882603 -0.16530196 -0.57296675
0.14231524 -0.16089307 -0.55786622
0.13358141 -0.15376492 -0.5333218
0.13717729 -0.16082826 -0.55799663
0.1278106 -0.15267394 -0.52986979
0.12370019 -0.15060554 -0.52285117
0.13489877 -0.16746026 -0.58153999
0.12140522 -0.15372387 -0.53399563
0.12246267 -0.15822735 -0.54979944
0.1059988 -0.13980852 -0.48593757
0.09541332 -0.12852424 -0.44684178
0.091170579 -0.12547892 -0.43637425
0.081537418 -0.11471451 -0.39904687
0.081772543 -0.11765998 -0.40940142
0.080263048 -0.11817376 -0.41129583
0.088675551 -0.13366833 -0.46534178
0.10045604 -0.15511939 -0.54015398
0.11045636 -0.17482547 -0.608922
0.11216537 -0.18208247 -0.63434905
0.10977764 -0.182896 -0.63733107
0.10446628 -0.17875095 -0.62302792
0.10468137 -0.18409452 -0.64179438
0.10179318 -0.18413 -0.64205617
0.097214669 -0.18102011 -0.63134414
0.094162546 -0.18065009 -0.63018203
0.091322646 -0.1806768 -0.63039994
0.087086581 -0.17785394 -0.62066978
0.084192507 -0.17767492 -0.62016046
0.082928769 -0.18104275 -0.63202977
0.077356361 -0.17490891 -0.61072278
0.071430795 -0.16749258 -0.58492619
0.067730017 -0.16492318 -0.57604682
0.067934051 -0.1720368 -0.60098761
0.065152116 -0.17186648 -0.60048318
0.060927946 -0.16771142 -0.58605069
0.058269907 -0.16768552 -0.58604151
0.049202867 -0.14833547 -0.51848412
0.048749212 -0.15431619 -0.5394572
0.047881212 -0.15954585 -0.55780619
0.044480775 -0.15644936 -0.54704291
0.042834286 -0.15952051 -0.55784196
0.03858583 -0.15267988 -0.53397506
0.035783157 -0.15102933 -0.52825332
0.032787811 -0.14827171 -0.51865476
0.030446036 -0.14827274 -0.51870185
0.026837884 -0.14159271 -0.49537164
0.02302118 -0.13249785 -0.46358576
0.019372083 -0.12264511 -0.42914093
0.017487032 -0.12301201 -0.4304502
0.014310854 -0.11325295 -0.39632174
0.012673237 -0.1146208 -0.40112719
0.010025463 -0.10578575 -0.37022302
0.0079661729 -0.10086805 -0.35302442
0.0060811625 -0.096249945 -0.33687121
0.0045479806 -0.09597791 -0.33592638
0.0028915575 -0.091532581 -0.32037258
0.0014247667 -0.090202317 -0.31571949
-0 -0.090102389 -0.31537068
-0.0013957871 -0.088367611 -0.3092978
-0.0027343559 -0.086556345 -0.3029553
-0.0041919062 -0.088463537 -0.30962577
-0.0056191212 -0.08893697 -0.31127605
-0.0069421204 -0.087901458 -0.30764312
-0.0081918268 -0.086437754 -0.30250999
-0.0096341046 -0.087133922 -0.30493405
-0.010822028 -0.08564315 -0.29970294
-0.011927035 -0.083900377 -0.29358867
-0.01331806 -0.084316954 -0.29502892
-0.014656585 -0.084355623 -0.29514492
-0.015762914 -0.083162807 -0.29095069
-0.017403627 -0.084755972 -0.29650146
-0.018500386 -0.083661698 -0.29264876
-0.019954847 -0.084223077 -0.29458594
-0.021033559 -0.083227478 -0.29107565
-0.022350078 -0.083234631 -0.29107085
-0.023951735 -0.084243894 -0.29456833
-0.025035484 -0.083421186 -0.29165819
-0.025847536 -0.081820674 -0.286028
-0.027697915 -0.083502926 -0.29187182
-0.028947774 -0.083304107 -0.29113823
-0.030445775 -0.083805613 -0.29285029
-0.031607889 -0.083379284 -0.29131833
-0.032775979 -0.083002187 -0.28995708
-0.034014013 -0.082824416 -0.2892907
-0.035640724 -0.083571196 -0.29185161
-0.037301362 -0.084341355 -0.2944915
-0.037542932 -0.081960395 -0.28612807
-0.039521106 -0.083403021 -0.29111174
-0.040712148 -0.08314503 -0.29015723
-0.041957691 -0.083010972 -0.28963381
-0.043575704 -0.083599627 -0.29163
-0.044099584 -0.082116328 -0.28639728
-0.045610517 -0.082503207 -0.28768638
-0.047302891 -0.083187699 -0.29001081
-0.04830255 -0.082649887 -0.28807226
-0.049568806 -0.082584545 -0.28777936
-0.051000979 -0.082791902 -0.28843504
-0.053067453 -0.083992831 -0.29254937
-0.05381804 -0.083103225 -0.28938055
-0.054688752 -0.082437083 -0.2869896
-0.056246534 -0.082813509 -0.28822684
-0.057073481 -0.08212126 -0.28574339
-0.057878345 -0.081428699 -0.28325856
-0.059885856 -0.082421459 -0.28663462
-0.060985077 -0.0821485 -0.28560668
-0.063332736 -0.083533548 -0.2903406
-0.064879365 -0.083827093 -0.29127765
-0.065262385 -0.082635529 -0.28705376
-0.0751229 -0.093255863 -0.32385004
-0.07411059 -0.090229981 -0.31324774
-0.07366617 -0.087996647 -0.30540094
-0.069724426 -0.081745736 -0.28361833
-0.076659463 -0.088242345 -0.30606177
-0.068391472 -0.077319294 -0.26808998
-0.082476832 -0.091607504 -0.31752834
-0.082306616 -0.089842267 -0.31130689
-0.082745969 -0.088790976 -0.30756113
-0.079057701 -0.08341936 -0.28885648
-0.085700706 -0.088946424 -0.30788913
-0.09001217 -0.091914393 -0.31805193
-0.1012595 -0.10175813 -0.3519901
-0.10278161 -0.10167386 -0.35157305
-0.092351109 -0.089950308 -0.31092229
-0.11605152 -0.11132195 -0.38465491
-0.084412739 -0.079764031 -0.27550974
-0.12776722 -0.11895549 -0.4107258
-0.10263117 -0.094168179 -0.32501814
-0.10402425 -0.094082847 -0.32459968
-0.122214 -0.10897744 -0.37584326
-0.10323383 -0.090774432 -0.31294253
-0.099614583 -0.086392082 -0.29771748
-0.091556683 -0.07833074 -0.26983008
-0.12912524 -0.10899933 -0.37532556
-0.10340651 -0.086140662 -0.29649493
-0.15192117 -0.12491122 -0.4297677
-0.11945553 -0.096958429 -0.3334569
-0.12676489 -0.10158879 -0.34923714
-0.13783143 -0.10907676 -0.37482271
-0 0 1
-0.15032591 -0.11606302 -0.39849406
-0.14043452 -0.10711978 -0.3676317
-0.14076175 -0.10609117 -0.36394575
-0.15702388 -0.11695551 -0.40104297
-0.13582385 -0.099988841 -0.34271541
-0.1526334 -0.11107191 -0.38053721
-0 0 1
-0.13159326 -0.09360899 -0.32042688
-0 0 1
-0.20939624 -0.1456805 -0.49822733
-0 0 1
-0 0 1
-0.19667293 -0.1324618 -0.45241049
-0.17412806 -0.11604302 -0.39615473
-0 0 1
-0 0 1
-0.17741676 -0.11461527 -0.39074725
-0 0 1
-0.24093628 -0.15253732 -0.51955539
-0.16975941 -0.10641096 -0.36227855
-0 0 1
-0.18983357 -0.11668357 -0.39688608
-0 0 1
-0 0 1
-0 0 1
-0 0 1
-0.23635437 -0.13855231 -0.47018147
-0 0 1
-0 0 1
-0 0 1
-0 0 1
-0 0 1
-0 0 1
-0 0 1
-0 0 1
-0 0 1
-0 0 1
-0 0 1
-0 0 1
-0 0 1
-0 0 1
-0 0 1
-0 0 1
-0 0 1
-0 0 1
-0 0 1
-0.3329784 -0.16469485 -0.55381542
-0 0 1
-0 0 1
-0 0 1
-0 0 1
-0 0 1
-0 0 1
-0 0 1
-0 0 1
-0 0 1
-0 0 1
-0 0 1
-0 0 1
-0 0 1
-0 0 1
-0 0 1
-0 0 1
-0 0 1
-0 0 1
-0 0 1
-0 0 1
-0 0 1
-0 0 1
-0 0 1
-0 0 1
-0 0 1
-0 0 1
-0 0 1
-0 0 1
-0 0 1
-0.32490161 -0.13018732 -0.43256679
-0 0 1
0.16438586 -0.06604638 -0.21594729
0.16485827 -0.06665276 -0.21800382
0.16638327 -0.067695081 -0.22148886
0.1685746 -0.069023512 -0.22591358
0.16650237 -0.068612047 -0.22464553
0.16032881 -0.066494294 -0.21778876
0.16662571 -0.06955459 -0.22789364
0.16706011 -0.070191719 -0.2300643
0.16114074 -0.068150066 -0.22345409
0.15717767 -0.066914223 -0.21948287
0.16183351 -0.069355637 -0.22757559
0.15931438 -0.068734258 -0.22562151
0.16042542 -0.069681257 -0.22881691
0.16328779 -0.071407013 -0.2345738
0.16555375 -0.072893821 -0.23955062
0.16482155 -0.073071927 -0.24022968
0.16198522 -0.072313175 -0.23782884
0.16507757 -0.07420899 -0.24416085
0.16441633 -0.074432246 -0.24499345
0.16163322 -0.073691271 -0.24265246
0.15690874 -0.072048284 -0.23733892
0.15990704 -0.073953263 -0.24371409
0.16155201 -0.075255424 -0.24810782
0.15387744 -0.072203614 -0.23814541
0.1565606 -0.074002795 -0.24418181
0.15691495 -0.074719697 -0.24665134
0.15805422 -0.075823851 -0.25040242
0.15653081 -0.075657628 -0.2499602
0.15299857 -0.074510574 -0.24627629
0.15093292 -0.074065715 -0.24491176
0.16130546 -0.079764612 -0.26387081
0.15605924 -0.077768601 -0.25738013
0.15565257 -0.078171924 -0.25882858
0.15877213 -0.0803665 -0.26621222
0.15556912 -0.079370186 -0.2630285
0.15395647 -0.0791758 -0.26250109
0.15185687 -0.078725837 -0.26112595
0.15816778 -0.082664192 -0.27431205
0.15581171 -0.082100309 -0.27256352
0.15796211 -0.083921283 -0.27873477
0.14844842 -0.079524115 -0.26424977
0.14993525 -0.080995582 -0.26926157
0.15523008 -0.084566504 -0.28126079
0.15380868 -0.08450833 -0.28119564
0.14796042 -0.08199589 -0.27296051
0.14640187 -0.081837676 -0.27255866
0.15012223 -0.084653459 -0.28206596
0.15302499 -0.08705394 -0.29019776
0.14153373 -0.081235617 -0.27092671
0.16152132 -0.093543015 -0.31211644
0.16069877 -0.093912721 -0.31349438
0.14669889 -0.086517677 -0.2889418
0.15615883 -0.092949554 -0.31056535
0.15114714 -0.090807289 -0.30354738
0.12622137 -0.076547593 -0.25599849
0.13880748 -0.084982224 -0.28433728
0.15178153 -0.093818858 -0.31404769
0.14076383 -0.087853365 -0.29421401
0.13202156 -0.083204962 -0.27877471
0.13839686 -0.088086508 -0.29526538
0.17135848 -0.1101565 -0.3694126
0.15509203 -0.10070681 -0.33787692
0.13174102 -0.086417057 -0.29006597
0.15947548 -0.10568824 -0.3549124
0.15336798 -0.10269942 -0.34503174
0.14307678 -0.096816652 -0.32541457
0.13850659 -0.094721183 -0.31851465
0.15637659 -0.10809196 -0.36363876
0.13847822 -0.096760526 -0.32566333
0.13552895 -0.0957404 -0.32237321
0.14652365 -0.10465736 -0.35255405
0.11814367 -0.085334562 -0.28758898
0.15156496 -0.11071862 -0.37330028
0.14886387 -0.10999542 -0.37102368
0.13886705 -0.10380189 -0.35028437
0.1493382 -0.11294226 -0.38129342
0.13463369 -0.10303363 -0.34799105
0.13012254 -0.10078108 -0.34052831
0.13040529 -0.10223176 -0.34557632
0.11060494 -0.087779693 -0.29684851
0.11863689 -0.095331043 -0.32252002
0.14351046 -0.11677799 -0.39524233
0.13580261 -0.11192267 -0.3789652
0.12370696 -0.10327803 -0.34983778
0.15276325 -0.12921406 -0.43786943
0.14789051 -0.12676039 -0.42972741
0.14336984 -0.12454624 -0.42238945
0.15356576 -0.13523094 -0.45880717
0.15709975 -0.14026444 -0.47607094
0.14078242 -0.12746608 -0.43279997
0.13736749 -0.12615094 -0.42849901
0.15184538 -0.1414676 -0.48070824
0.18526679 -0.17514317 -0.59536219
0.17622493 -0.1690819 -0.57497227
0.17532305 -0.1707653 -0.58091074
0.18535519 -0.18331411 -0.62382656
0.1732648 -0.17403431 -0.59246027
0.16220047 -0.16550688 -0.56363118
0.17587318 -0.18235281 -0.62121797
0.16823968 -0.17729773 -0.60420662
0.16196252 -0.17352732 -0.5915603
0.15458259 -0.16842754 -0.57436931
0.15502697 -0.17182399 -0.58614731
0.15977311 -0.18019111 -0.6148926
0.15425666 -0.17707627 -0.60445935
0.15169737 -0.17730457 -0.60543203
0.14566162 -0.17340273 -0.59229511
0.1450043 -0.1758772 -0.60093343
0.14329809 -0.17715017 -0.6054675
0.14348102 -0.18085429 -0.61831301
0.1407799 -0.18099859 -0.61898893
0.13631225 -0.1788312 -0.61175418
0.12883224 -0.1725392 -0.59039825
0.12100759 -0.16550812 -0.56649756
0.11103645 -0.1551716 -0.53126377
0.1053226 -0.1504574 -0.51526231
0.0915813 -0.1338008 -0.45834047
0.080417052 -0.12022207 -0.41193241
0.082625389 -0.12646453 -0.43343151
0.076181747 -0.11944599 -0.40947831
0.088934071 -0.1429265 -0.49009162
0.09969829 -0.16433407 -0.56363118
0.10399964 -0.17593522 -0.60356015
0.10539979 -0.18312286 -0.62835974
0.10298234 -0.18389283 -0.63114059
0.098432764 -0.18079074 -0.62062693
0.097430319 -0.18421276 -0.63250625
0.094931006 -0.1849263 -0.63508517
0.090366006 -0.18153469 -0.62356037
0.088677831 -0.18388993 -0.63177145
0.086348288 -0.18502782 -0.63579893
0.080951005 -0.17944393 -0.61672229
0.073835045 -0.16951534 -0.58270055
0.073120937 -0.1740935 -0.59853834
0.070200965 -0.17356983 -0.59683484
0.065459281 -0.16832003 -0.57887334
0.063866332 -0.17106664 -0.58840775
0.059387483 -0.16598608 -0.57101482
0.057857294 -0.16905966 -0.58166891
0.051015187 -0.15616536 -0.53737575
0.049651269 -0.15958971 -0.54922861
0.050864946 -0.17209552 -0.59233856
0.04635416 -0.16554679 -0.56986344
0.043412019 -0.16415933 -0.56514853
0.039695021 -0.15948527 -0.54911321
0.037732553 -0.16170724 -0.55681694
0.034286413 -0.15743403 -0.54215139
0.029798081 -0.14734979 -0.50746709
0.02887523 -0.1546852 -0.53277123
0.023085345 -0.13491127 -0.46469843
0.022032095 -0.14163165 -0.48787844
0.017608436 -0.12577166 -0.43327111
0.013855172 -0.11133365 -0.3835538
0.01153323 -0.105915 -0.36490306
0.010188648 -0.10916161 -0.37610364
0.0082075838 -0.10552366 -0.36358202
0.0063459333 -0.10198586 -0.35140228
0.0047287284 -0.10132758 -0.34914172
0.0030288335 -0.097353131 -0.33545229
0.0014493943 -0.093173206 -0.3210524
-0 -0.093046315 -0.32061619
-0.0013898953 -0.089348361 -0.30787292
-0.0027384844 -0.088020697 -0.30329525
-0.0042610914 -0.091307014 -0.31461412
-0.0055590374 -0.089339621 -0.3078284
-0.0070990943 -0.091271974 -0.3144778
-0.008580165 -0.091928244 -0.31672809
-0.0099121938 -0.091028266 -0.31361464
-0.010860831 -0.087272525 -0.30066121
-0.012206375 -0.087186396 -0.30034864
-0.013509424 -0.086844303 -0.29915252
-0.014797292 -0.0864757 -0.29786336
-0.016102031 -0.086258903 -0.29709542
-0.017420417 -0.08614295 -0.29667303
-0.018734956 -0.086025909 -0.29624513
-0.019897075 -0.085271224 -0.2936199
-0.021130549 -0.084897578 -0.29230526
-0.022594443 -0.085439205 -0.29414013
-0.023861064 -0.085216135 -0.29334038
-0.025218187 -0.085322745 -0.29367384
-0.026435841 -0.0849704 -0.29242596
-0.027442882 -0.084006898 -0.28907353
-0.028645929 -0.083703727 -0.28799215
-0.030175604 -0.084339827 -0.29014057
-0.03162019 -0.084695004 -0.29132035
-0.032986425 -0.084820293 -0.29170746
-0.034489546 -0.085274398 -0.29322338
-0.035249412 -0.083925247 -0.28853738
-0.036862269 -0.084630825 -0.29091424
-0.038004413 -0.084244311 -0.28953525
-0.039394408 -0.084414661 -0.29006857
-0.040789112 -0.084583789 -0.29059571
-0.0416715 -0.083713152 -0.28754947
-0.042942502 -0.08365231 -0.28728387
-0.044559076 -0.084248424 -0.28927234
-0.045904074 -0.084311679 -0.2894291
-0.047108788 -0.084120914 -0.28871232
-0.048627034 -0.084485196 -0.28989878
-0.050081085 -0.084721714 -0.29064474
-0.050867729 -0.08384598 -0.28757399
-0.052270751 -0.084004648 -0.28804997
-0.053291835 -0.083556704 -0.2864446
-0.055385523 -0.084771819 -0.29053819
-0.056133531 -0.083918639 -0.28754127
-0.05768209 -0.08427386 -0.28868377
-0.05811327 -0.083017051 -0.28430346
-0.059495378 -0.083143815 -0.28466094
-0.062148467 -0.085003555 -0.2909483
-0.063956603 -0.085654199 -0.29309332
-0.068098716 -0.089340292 -0.30561945
-0.073170424 -0.094074108 -0.3217198
-0.066191405 -0.083432637 -0.28524336
-0.077759124 -0.096128583 -0.32855025
-0.070138738 -0.085071988 -0.29067212
-0.073219612 -0.087164208 -0.29772851
-0.061196584 -0.07152684 -0.24423873
-0.073950917 -0.084890679 -0.28977889
-0.085553214 -0.096486382 -0.32925463
-0.071211576 -0.078927279 -0.26924655
-0.082953453 -0.090383053 -0.30822304
-0.053817026 -0.057659782 -0.19656409
-0.080246828 -0.084567323 -0.288194
-0.078474976 -0.081366204 -0.27718875
-0.072492234 -0.073969968 -0.25190362
-0.083987698 -0.084360704 -0.28718689
-0.11976604 -0.11844721 -0.40308145
-0.094735518 -0.092272736 -0.31389415
-0.10599822 -0.10170173 -0.3458423
-0.13585533 -0.12843172 -0.43657652
-0.1084117 -0.10100237 -0.343207
-0.11386335 -0.10456599 -0.35518107
-0.10748081 -0.097314402 -0.33042258
-0.12819229 -0.11445478 -0.38847053
-0.11287406 -0.099397585 -0.33723292
-0.10946749 -0.095095061 -0.32250795
-0.11450975 -0.098148979 -0.3327325
-0.11449985 -0.096849158 -0.32819405
-0.12267851 -0.10241942 -0.34692937
-0.096432641 -0.079475634 -0.26910099
-0.10707624 -0.087130576 -0.29489881
-0.11565422 -0.09293431 -0.31441149
-0.11500698 -0.091273285 -0.30866298
-0.14145659 -0.11089548 -0.37486246
-0.10695607 -0.082838431 -0.27990207
-0.16836371 -0.12884682 -0.43517384
-0 0 1
-0 0 1
-0 0 1
-0.14416426 -0.10531239 -0.35507259
-0.12481523 -0.090153396 -0.3038291
-0.1883779 -0.13455255 -0.45326051
-0.16275102 -0.11497062 -0.38712442
-0.18399301 -0.12856361 -0.4327018
-0.16188551 -0.11189988 -0.37644923
-0.22076577 -0.15097618 -0.50768077
-0.1714292 -0.11600207 -0.38989949
-0 0 1
-0 0 1
-0 0 1
-0.17104329 -0.11106453 -0.37262765
-0 0 1
-0.18086806 -0.11511847 -0.38587633
-0 0 1
-0.16524118 -0.10313014 -0.3453747
-0 0 1
-0 0 1
-0 0 1
-0 0 1
-0 0 1
-0 0 1
-0 0 1
-0 0 1
-0 0 1
-0 0 1
-0.23197685 -0.13081104 -0.43586332
-0 0 1
-0 0 1
-0 0 1
-0 0 1
-0 0 1
-0 0 1
-0 0 1
-0 0 1
-0 0 1
-0 0 1
-0 0 1
-0 0 1
-0 0 1
-0 0 1
-0 0 1
-0 0 1
-0 0 1
-0 0 1
-0 0 1
-0 0 1
-0 0 1
-0 0 1
-0 0 1
-0 0 1
-0 0 1
-0 0 1
-0 0 1
-0 0 1
-0 0 1
-0 0 1
-0 0 1
-0 0 1
-0.29538861 -0.12917572 -0.42434543
-0 0 1
-0 0 1
-0 0 1
-0 0 1
-0 0 1
-0 0 1
-0 0 1
-0.42694652 -0.17707054 -0.57995909
-0 0 1
-0 0 1
-0 0 1
-0 0 1
0.16630319 -0.067829087 -0.21843706
0.16462335 -0.067566223 -0.21766381
0.16428053 -0.067852274 -0.21865973
0.16700965 -0.069418825 -0.22378506
0.16246042 -0.067960784 -0.21916099
0.1612035 -0.067870058 -0.21894535
0.16518556 -0.069998175 -0.2258908
0.16567758 -0.070665538 -0.2281263
0.16501102 -0.07084427 -0.22878624
0.16268525 -0.070308298 -0.22713858
0.15913518 -0.069232546 -0.22374596
0.15995622 -0.070056789 -0.22649433
0.16304833 -0.071893565 -0.23252034
0.16381724 -0.072723985 -0.23529562
0.16259907 -0.072677612 -0.23523594
0.16348676 -0.073578335 -0.23824367
0.15776387 -0.071495779 -0.23159099
0.15864027 -0.072395705 -0.23459853
0.15885189 -0.073002793 -0.23665987
0.15880184 -0.073497377 -0.23835877
0.15898263 -0.074106626 -0.24043177
0.15982771 -0.075036518 -0.24354787
0.15939213 -0.075374283 -0.24474454
0.15582141 -0.074223593 -0.24110776
0.15829952 -0.075958453 -0.24684598
0.16002165 -0.077353559 -0.25148508
0.1574544 -0.076680578 -0.24940227
0.1592246 -0.078125693 -0.25421029
0.15591221 -0.077079974 -0.25091478
0.1535515 -0.076492384 -0.24910899
0.15586582 -0.07824254 -0.25491863
0.15694273 -0.079393849 -0.25878197
0.1576703 -0.080385052 -0.2621271
0.15451887 -0.079398662 -0.25902411
0.15138927 -0.078407921 -0.25590467
0.15495059 -0.080894426 -0.26413682
0.15217838 -0.080087863 -0.26161939
0.15808359 -0.083872005 -0.27410305
0.15546569 -0.083159171 -0.27189502
0.15186048 -0.081902049 -0.26790506
0.15040644 -0.081793845 -0.26767159
0.15286712 -0.083830602 -0.27446082
0.14732927 -0.081478387 -0.26688051
0.15160488 -0.084559552 -0.27709851
0.14746077 -0.082957171 -0.2719712
0.15096623 -0.085667744 -0.28098568
0.14597264 -0.08356069 -0.27419978
0.14989154 -0.086563364 -0.28418273
0.14612257 -0.085140206 -0.27963847
0.14230685 -0.083663933 -0.27491558
0.13772133 -0.081704117 -0.26859877
0.15053733 -0.090126626 -0.2964232
0.14607342 -0.088263839 -0.29042968
0.13764119 -0.083946005 -0.27634862
0.14349352 -0.088340893 -0.29094979
0.1398945 -0.086945429 -0.28648496
0.12734137 -0.079904571 -0.26340586
0.14312476 -0.090680294 -0.29906473
0.1524635 -0.097544111 -0.32184857
0.15060611 -0.097309805 -0.32122183
0.13326859 -0.086968742 -0.28721631
0.14914912 -0.098315254 -0.32483584
0.13933104 -0.092780598 -0.3066881
0.14227848 -0.095720038 -0.31654739
0.13181621 -0.089605145 -0.2964589
0.13216731 -0.090789542 -0.30051231
0.13153484 -0.091316305 -0.30239123
0.1046184 -0.073410891 -0.24320643
0.13336135 -0.094597042 -0.31353426
0.10650945 -0.076380439 -0.25326884
0.13581306 -0.098476909 -0.32668209
0.14102623 -0.10340589 -0.3431837
0.13479429 -0.09995953 -0.33189076
0.11943305 -0.089586116 -0.29757759
0.1393051 -0.10570706 -0.35127813
0.16078509 -0.12344179 -0.41038913
0.14034149 -0.10902904 -0.36262789
0.12438601 -0.097797751 -0.32541099
0.10569419 -0.084114842 -0.28000072
0.13281369 -0.10700232 -0.35633761
0.10664894 -0.086996533 -0.28983521
0.10518456 -0.08688809 -0.28959349
0.13025381 -0.10897608 -0.36336067
0.13517304 -0.11456046 -0.3821362
0.14248501 -0.12234634 -0.40827206
0.13636461 -0.11865221 -0.39610329
0.13934661 -0.12288533 -0.41039783
0.15757516 -0.14086412 -0.47062635
0.13470776 -0.12209434 -0.40807578
0.18488707 -0.16993529 -0.56819397
0.17618985 -0.16425489 -0.54941118
0.17388338 -0.16445397 -0.55028558
0.18179339 -0.1744635 -0.58399767
0.18688513 -0.18202683 -0.6095413
0.18588279 -0.18379371 -0.61568379
0.19154319 -0.19230418 -0.64442664
0.17771581 -0.18120971 -0.60746604
0.17902556 -0.18544278 -0.62187684
0.1726611 -0.18173485 -0.60965592
0.17683196 -0.18917611 -0.6348384
0.17072561 -0.18568757 -0.62334418
0.16819341 -0.18603401 -0.62471777
0.16479427 -0.185417 -0.62285268
0.16127831 -0.18464456 -0.6204614
0.15910935 -0.18541424 -0.62324917
0.15712936 -0.1864361 -0.62688369
0.15612508 -0.188675 -0.63461083
0.14903045 -0.18349935 -0.61739308
0.14937635 -0.18746229 -0.63091838
0.14397898 -0.18423167 -0.62023103
0.14610344 -0.19068909 -0.64215916
0.1387046 -0.18472691 -0.62226081
0.13644713 -0.18550627 -0.62506354
0.13264076 -0.18416816 -0.62072778
0.12349606 -0.17519858 -0.59065807
0.11644769 -0.16887046 -0.56947637
0.10750312 -0.15944238 -0.5378238
0.098721109 -0.14982247 -0.50550455
0.084318131 -0.1310108 -0.44214508
0.068420351 -0.10890224 -0.36762226
0.073360413 -0.11968431 -0.40411696
0.072435647 -0.12120572 -0.40935066
0.086383656 -0.14834857 -0.50113636
0.09762457 -0.17218401 -0.58178562
0.099219099 -0.17985736 -0.60784614
0.10088381 -0.18810001 -0.63583887
0.095277131 -0.18287113 -0.61829215
0.093437344 -0.18477443 -0.62485373
0.091652229 -0.18690822 -0.63219386
0.087481543 -0.18415782 -0.62300992
0.084326841 -0.18343404 -0.62067628
0.077020749 -0.17331858 -0.58655429
0.075452447 -0.17585337 -0.59523588
0.075563557 -0.18263501 -0.6182943
0.071210138 -0.17873265 -0.6051811
0.066944808 -0.17474803 -0.5917815
0.066666134 -0.18127146 -0.61396503
0.060510457 -0.17168723 -0.58158714
0.062790103 -0.18625328 -0.63101631
0.053496119 -0.16624108 -0.56329036
0.051800366 -0.16902006 -0.57277876
0.046803806 -0.16075443 -0.54483342
0.045233902 -0.16399363 -0.55587512
0.042078353 -0.16152702 -0.54757327
0.038598761 -0.15743047 -0.53374028
0.036662627 -0.15950261 -0.54081726
0.032773037 -0.15276508 -0.51801902
0.030993311 -0.15558223 -0.5276159
0.0277681 -0.15100813 -0.51214361
0.024726067 -0.14668907 -0.49753094
0.021269327 -0.13879989 -0.47080353
0.018848864 -0.13667153 -0.46361148
0.01628734 -0.13286039 -0.45070726
0.012821713 -0.11953177 -0.40551093
0.010541634 -0.11465475 -0.38898131
0.0083177248 -0.10856002 -0.36831671
0.0066070161 -0.10779057 -0.36571631
0.0044822916 -0.097502165 -0.3308166
0.0030303025 -0.098876104 -0.33548346
0.0014846635 -0.096886516 -0.32873595
-0 -0.093886912 -0.31855923
-0.0014632614 -0.095489867 -0.32399708
-0.0027758616 -0.090573922 -0.30731443
-0.0042908727 -0.093338281 -0.3166889
-0.0055481181 -0.090515122 -0.30710346
-0.0073151598 -0.095474899 -0.32392219
-0.0087918267 -0.095623195 -0.32441425
-0.0099539533 -0.09279678 -0.3148126
-0.011159317 -0.091029666 -0.30880332
-0.012289017 -0.089106627 -0.3022638
-0.01350226 -0.088113382 -0.29887697
-0.014802531 -0.087817021 -0.29785234
-0.016079269 -0.087442078 -0.29655954
-0.017303141 -0.086859427 -0.29456073
-0.01878603 -0.087567396 -0.29693681
-0.019904435 -0.086595245 -0.29361403
-0.021138472 -0.086216226 -0.29230097
-0.022851564 -0.087720759 -0.29737157
-0.023606488 -0.085584335 -0.29009786
-0.02529509 -0.086879641 -0.2944549
-0.026485229 -0.086418979 -0.29285848
-0.027860144 -0.08657638 -0.29335496
-0.028943941 -0.085855953 -0.29087546
-0.030232517 -0.085779175 -0.29057527
-0.031973213 -0.086938158 -0.29445887
-0.033294778 -0.086910352 -0.29432058
-0.034902304 -0.087602437 -0.29661807
-0.035582501 -0.08600191 -0.2911517
-0.036975455 -0.086176902 -0.29169521
-0.038087439 -0.08570756 -0.29005626
-0.039468367 -0.085854538 -0.29050156
-0.041097399 -0.086514331 -0.29267988
-0.041952156 -0.08555387 -0.28937536
-0.044127878 -0.087263867 -0.2951012
-0.045030612 -0.086429961 -0.29222202
-0.046526831 -0.086750261 -0.29324391
-0.047508586 -0.086120203 -0.29105192
-0.04912477 -0.086643137 -0.29275504
-0.050054781 -0.085960187 -0.29038212
-0.051636986 -0.086403571 -0.29181263
-0.052478742 -0.085616775 -0.28908709
-0.053633712 -0.085366867 -0.28817371
-0.054895643 -0.085295089 -0.28786024
-0.056440923 -0.085656643 -0.28900754
-0.05746242 -0.085224934 -0.28747687
-0.05875187 -0.085200965 -0.28732044
-0.059931912 -0.085022852 -0.28664288
-0.062134039 -0.086271457 -0.2907728
-0.061730098 -0.083924957 -0.28278524
-0.0649646 -0.086519919 -0.29144618
-0.06624759 -0.086464033 -0.29117382
-0.065818965 -0.084220193 -0.2835342
-0.065100305 -0.081698693 -0.27496305
-0.07197845 -0.088626176 -0.29818738
-0.069421597 -0.083895028 -0.28218204
-0.074952751 -0.088932455 -0.2990317
-0.087437294 -0.10189294 -0.34250167
-0.077564873 -0.088802591 -0.2984035
-0.082172245 -0.092455469 -0.31057638
-0.086702585 -0.095899291 -0.32203785
-0.094421715 -0.1026966 -0.34474751
-0.09254536 -0.099005699 -0.33224395
-0.089625604 -0.094335645 -0.31646261
-0.075838909 -0.078557372 -0.26343983
-0.088438071 -0.090176769 -0.30229795
-0.085158154 -0.085496478 -0.28650552
-0.1063277 -0.10513271 -0.35218021
-0.090876676 -0.088514224 -0.29640177
-0.11375162 -0.10916515 -0.36541855
-0.10203951 -0.096506082 -0.32292259
-0.10433815 -0.097270362 -0.32535666
-0.10172873 -0.093501948 -0.31263217
-0.10819657 -0.09806554 -0.32776433
-0.10850583 -0.096998647 -0.324072
-0.10535895 -0.092912696 -0.31029877
-0.14031887 -0.12209285 -0.40758938
-0.12212171 -0.10486118 -0.34992373
-0.12075733 -0.102343 -0.34138277
-0.13444309 -0.11248101 -0.37504721
-0.13449433 -0.11109954 -0.37028903
-0.1313117 -0.10711464 -0.3568601
-0 0 1
-0.12886728 -0.10255674 -0.34138995
-0.1274367 -0.10019633 -0.33339199
-0.15073833 -0.11710618 -0.38949227
-0.1492155 -0.11455932 -0.38085881
-0.14109148 -0.10706259 -0.35578272
-0.15034977 -0.11277658 -0.3746092
-0.15999569 -0.11864816 -0.39394167
-0.15941657 -0.11689042 -0.38793615
-0.19279093 -0.13979109 -0.46373555
-0.16589777 -0.11896921 -0.39448833
-0 0 1
-0.17634976 -0.1237449 -0.40996033
-0 0 1
-0.21825533 -0.14992589 -0.49625295
-0.17287666 -0.11751695 -0.38880518
-0 0 1
-0 0 1
-0 0 1
-0 0 1
-0 0 1
-0 0 1
-0 0 1
-0 0 1
-0.22068627 -0.1371581 -0.45193556
-0.24696504 -0.15204248 -0.5007503
-0 0 1
-0 0 1
-0 0 1
-0 0 1
-0 0 1
-0 0 1
-0 0 1
-0 0 1
-0 0 1
-0 0 1
-0 0 1
-0 0 1
-0 0 1
-0 0 1
-0 0 1
-0 0 1
-0 0 1
-0 0 1
-0.2932514 -0.15309657 -0.49989158
-0 0 1
-0 0 1
-0 0 1
-0 0 1
-0 0 1
-0 0 1
-0 0 1
-0 0 1
-0 0 1
-0 0 1
-0 0 1
-0 0 1
-0 0 1
-0 0 1
-0 0 1
-0 0 1
-0 0 1
-0 0 1
-0 0 1
-0 0 1
-0 0 1
-0 0 1
-0 0 1
-0 0 1
-0 0 1
-0 0 1
-0 0 1
-0 0 1
-0.298518 -0.12649845 -0.40822256
-0 0 1
-0 0 1
-0.34400269 -0.14298733 -0.46094739
-0 0 1
-0.3388359 -0.13906814 -0.44800639
0.16402234 -0.067897305 -0.21541242
0.16449396 -0.068520777 -0.21746318
0.1632984 -0.06845329 -0.21732244
0.16348189 -0.068966709 -0.21902725
0.16418083 -0.069705553 -0.22145018
0.16396812 -0.070064366 -0.22266783
0.16526386 -0.071076594 -0.22596444
0.16611902 -0.071911357 -0.22869976
0.16358295 -0.071279384 -0.22677155
0.15667062 -0.068719521 -0.21870701
0.16291255 -0.071933769 -0.22902079
0.16171995 -0.071886405 -0.22895493
0.16362993 -0.073226869 -0.23331161
0.1611542 -0.072609559 -0.23143223
0.16619629 -0.075394191 -0.24039955
0.16285385 -0.074387431 -0.23728071
0.1617758 -0.074408159 -0.23743902
0.16263001 -0.075324126 -0.24045606
0.16390564 -0.076449566 -0.24414523
0.16009702 -0.075202733 -0.24025902
0.15690042 -0.074227631 -0.23723894
0.15838663 -0.075469792 -0.24130662
0.15892448 -0.07627482 -0.24397998
0.15439759 -0.074643061 -0.23885851
0.15702409 -0.076471023 -0.24480915
0.16008118 -0.078537308 -0.25152871
0.15798713 -0.07808838 -0.25019571
0.15195687 -0.075672507 -0.24255748
0.15662502 -0.078588091 -0.25200978
0.15579268 -0.078767173 -0.25269184
0.15919799 -0.081107996 -0.26031303
0.15438385 -0.079265036 -0.2545079
0.1529382 -0.079136252 -0.25420454
0.15633944 -0.081533156 -0.26201811
0.15342513 -0.08064834 -0.25928807
0.15102191 -0.080020167 -0.25738156
0.1514755 -0.080907777 -0.26035136
0.15212615 -0.081915908 -0.26371226
0.15564458 -0.084497459 -0.27214405
0.15238868 -0.083413593 -0.26877314
0.14958999 -0.082564004 -0.26615471
0.1542881 -0.08587268 -0.27694485
0.14981112 -0.084087528 -0.27130973
0.15262392 -0.086398505 -0.27889195
0.15272568 -0.087201424 -0.281611
0.15113379 -0.087042883 -0.2812264
0.14564438 -0.084617145 -0.2735132
0.14700843 -0.086165488 -0.27864456
0.146165 -0.086436041 -0.27964666
0.14620508 -0.087238669 -0.28237197
0.14429021 -0.086878762 -0.28133523
0.14477949 -0.087973125 -0.28500888
0.14151257 -0.086784214 -0.28128538
0.14554964 -0.090094216 -0.29214686
0.14380349 -0.089853093 -0.2914978
0.1395461 -0.08802335 -0.28569195
0.14999597 -0.095524706 -0.3101798
0.14372902 -0.092422284 -0.30024227
0.15071373 -0.097863808 -0.31806397
0.13734514 -0.090066105 -0.29285365
0.13790673 -0.091338731 -0.29712608
0.13126117 -0.087815374 -0.28579357
0.1298466 -0.087755419 -0.2857272
0.14580889 -0.0995593 -0.32430568
0.14778046 -0.10195659 -0.33226356
0.13415001 -0.093526915 -0.30492854
0.15809691 -0.11139482 -0.36334559
0.14654563 -0.10436611 -0.34057054
0.14193822 -0.10218356 -0.3335959
0.13390502 -0.097459689 -0.31831411
0.14377965 -0.10580944 -0.34573689
0.12551248 -0.093404196 -0.30533546
0.14170593 -0.10665343 -0.34879836
0.13330328 -0.10148247 -0.33203074
0.12727888 -0.098022871 -0.32084954
0.11759024 -0.091626659 -0.30004162
0.12564288 -0.099066786 -0.32454312
0.11969435 -0.095513575 -0.31303495
0.11869023 -0.095867328 -0.31432635
0.11647613 -0.095240451 -0.31240124
0.11199888 -0.092724219 -0.30427369
0.10807035 -0.090604335 -0.29743966
0.11598472 -0.09848626 -0.32344684
0.13840449 -0.11904988 -0.39113992
0.13039598 -0.11363709 -0.37350631
0.16490957 -0.1456311 -0.47885615
0.13696824 -0.12259073 -0.40325549
0.14540991 -0.13192911 -0.43414375
0.16827862 -0.15479821 -0.50959772
0.17793107 -0.16598274 -0.54662764
0.1791303 -0.16948861 -0.55838621
0.18692952 -0.17943135 -0.59136593
0.18728523 -0.18241651 -0.60142899
0.19092904 -0.18874121 -0.62251157
0.18466063 -0.18531041 -0.61141956
0.18261915 -0.18608117 -0.61418468
0.17788821 -0.18409276 -0.60783881
0.17328468 -0.18217511 -0.60171968
0.17943673 -0.19168547 -0.63335305
0.17406729 -0.18899783 -0.62468797
0.17076868 -0.18850656 -0.62327623
0.16620295 -0.18657619 -0.61710078
0.16119635 -0.1840758 -0.60903245
0.16140881 -0.18755211 -0.62073684
0.16093192 -0.1903372 -0.63015747
0.15708353 -0.18916355 -0.62647069
0.15515547 -0.19030176 -0.63043714
0.15479957 -0.1934476 -0.64105606
0.14607516 -0.1860555 -0.61674654
0.14781013 -0.19195682 -0.63649815
0.1428062 -0.18916753 -0.62743306
0.13807294 -0.18663022 -0.6191957
0.13959122 -0.19261335 -0.63922715
0.13392425 -0.18872561 -0.62649882
0.12815396 -0.18452013 -0.61270517
0.12447525 -0.18320611 -0.60850471
0.12251965 -0.18442617 -0.61271769
0.11669071 -0.17973693 -0.59729195
0.099291921 -0.15657923 -0.52046639
0.091729037 -0.14818098 -0.49267209
0.082312606 -0.13629372 -0.45325845
0.075265251 -0.12782016 -0.4251788
0.067647941 -0.11790725 -0.39229473
0.074177414 -0.13278209 -0.44188455
0.093170777 -0.17141418 -0.57057285
0.098159567 -0.18575227 -0.6184305
0.095785491 -0.18659085 -0.62135124
0.091633514 -0.18391193 -0.61255413
0.089372776 -0.18497999 -0.61623222
0.087213248 -0.18633324 -0.62085843
0.083146192 -0.1835653 -0.61174864
0.075757168 -0.17301957 -0.57670707
0.076569766 -0.18112101 -0.60381508
0.075500421 -0.18520603 -0.61753678
0.07174518 -0.18276328 -0.60949016
0.06525214 -0.17287184 -0.57659322
0.063173391 -0.17433818 -0.5815708
0.063119367 -0.1817625 -0.60642451
0.058499534 -0.17611615 -0.58766717
0.053841144 -0.16981047 -0.56670076
0.049213454 -0.16297589 -0.54396033
0.046592042 -0.16241556 -0.54215497
0.045317031 -0.16674714 -0.55667734
0.04283607 -0.16688997 -0.55721402
0.040147878 -0.16619276 -0.55494249
0.036845516 -0.16269077 -0.54330063
0.034545165 -0.16342884 -0.54581404
0.030062348 -0.15316129 -0.51156545
0.028703906 -0.15842701 -0.52919394
0.025958953 -0.15630181 -0.5221321
0.023293599 -0.15427876 -0.51540744
0.019958751 -0.14687923 -0.49071622
0.015311047 -0.12676063 -0.42352325
0.013401249 -0.12679929 -0.42367193
0.0094401063 -0.10420658 -0.34819743
0.0085879322 -0.11375961 -0.38013095
0.0068026436 -0.11263859 -0.37639549
0.0048919497 -0.10800161 -0.3609083
0.0031156805 -0.10317926 -0.3447988
0.0014335263 -0.094945654 -0.31728718
-0 -0.095497079 -0.31913084
-0.0014153101 -0.093739159 -0.31325534
-0.0028590765 -0.094681531 -0.31640157
-0.0043074819 -0.095098071 -0.3177886
-0.005655935 -0.093651317 -0.31294724
-0.0070259501 -0.09306889 -0.31099233
-0.0083260126 -0.091908425 -0.3071042
-0.0099317785 -0.093972005 -0.31398681
-0.011254491 -0.093176275 -0.31131369
-0.012164758 -0.089522138 -0.29908904
-0.014056892 -0.093101956 -0.31103081
-0.014764045 -0.088895999 -0.29696044
-0.016027851 -0.088463381 -0.29549435
-0.017370956 -0.088501342 -0.29559839
-0.018626373 -0.088119037 -0.29429692
-0.019751379 -0.087211899 -0.29124132
-0.021184063 -0.087691754 -0.29281586
-0.022422582 -0.087358713 -0.2916742
-0.023593878 -0.086815305 -0.28982872
-0.02513133 -0.087605499 -0.29243353
-0.026842264 -0.088891178 -0.29668975
-0.027770523 -0.087585911 -0.29229647
-0.029362667 -0.08839798 -0.29496777
-0.030452328 -0.087692432 -0.29257324
-0.031709787 -0.087508775 -0.29191858
-0.032507751 -0.086122461 -0.28725109
-0.034063328 -0.08677274 -0.28937501
-0.035701752 -0.087578036 -0.29201353
-0.036845274 -0.087155193 -0.29055503
-0.038009927 -0.086809754 -0.2893534
-0.039565302 -0.087349966 -0.29110199
-0.040099308 -0.085673153 -0.28546113
-0.042093322 -0.087122977 -0.29023671
-0.043533057 -0.087372489 -0.29101092
-0.045527503 -0.088687919 -0.29533255
-0.046047963 -0.087138869 -0.29011399
-0.047426488 -0.087254532 -0.29043725
-0.048982073 -0.087680891 -0.2917926
-0.050027873 -0.087196283 -0.29011485
-0.050982188 -0.086581148 -0.28800204
-0.052905172 -0.087600715 -0.29132494
-0.054568499 -0.088151082 -0.29308468
-0.056296661 -0.08877749 -0.2950947
-0.056074128 -0.086370125 -0.28702047
-0.058463946 -0.088004507 -0.2923767
-0.059195206 -0.087125137 -0.2893793
-0.05858827 -0.084357232 -0.28011099
-0.070906468 -0.099921159 -0.3317011
-0.065142572 -0.089886226 -0.29830599
-0.068253271 -0.092256479 -0.30608556
-0.081659198 -0.10816945 -0.35877773
-0.070946485 -0.092136182 -0.30550885
-0.070913211 -0.090321951 -0.29940397
-0.070022479 -0.087504648 -0.28997716
-0.060614485 -0.074345067 -0.24629247
-0.074783377 -0.090055838 -0.29824638
-0.086408295 -0.10219671 -0.33834702
-0.055401407 -0.064374737 -0.21305959
-0.076351434 -0.087188393 -0.28847116
-0.094349921 -0.10591538 -0.35031518
-0.08178702 -0.090282299 -0.2985085
-0.10946693 -0.11885641 -0.39285195
-0.093429685 -0.099807397 -0.32977629
-0.071642809 -0.075318471 -0.24877495
-0.11101666 -0.11488879 -0.37934068
-0.088968307 -0.090654932 -0.29921818
-0.09076798 -0.091087371 -0.30053684
-0 0 1
-0.10607953 -0.10332186 -0.34065315
-0.11917188 -0.11439162 -0.37700939
-0.086531319 -0.081873767 -0.26973602
-0.096828245 -0.090326078 -0.29746908
-0.11262676 -0.1036045 -0.34106734
-0.13731296 -0.12458283 -0.40996906
-0.13128479 -0.11750387 -0.38652253
-0.13292971 -0.1173898 -0.38599464
-0.12007792 -0.10464513 -0.34395123
-0.15087205 -0.12977396 -0.42637405
-0.14127751 -0.11996316 -0.39398092
-0.10755975 -0.090176247 -0.29603434
-0.1674514 -0.13863352 -0.4549247
-0.12271483 -0.10034172 -0.32913408
-0.18445311 -0.1489847 -0.48848566
-0 0 1
-0.16303393 -0.12854886 -0.42112648
-0.13717791 -0.10688943 -0.35002124
-0 0 1
-0.13186039 -0.10038401 -0.32843679
-0.13322411 -0.10026968 -0.32792103
-0 0 1
-0 0 1
-0 0 1
-0 0 1
-0 0 1
-0.23024027 -0.16222692 -0.52914882
-0 0 1
-0 0 1
-0.21972489 -0.15002964 -0.48870841
-0 0 1
-0 0 1
-0 0 1
-0 0 1
-0 0 1
-0 0 1
-0.18795554 -0.1196992 -0.38867718
-0 0 1
-0 0 1
-0 0 1
-0.2451299 -0.15032874 -0.48724616
-0 0 1
-0 0 1
-0 0 1
-0 0 1
-0 0 1
-0 0 1
-0 0 1
-0 0 1
-0 0 1
-0 0 1
-0 0 1
-0 0 1
-0 0 1
-0 0 1
-0 0 1
-0 0 1
-0 0 1
-0 0 1
-0 0 1
-0 0 1
-0 0 1
-0 0 1
-0 0 1
-0 0 1
-0 0 1
-0 0 1
-0 0 1
-0 0 1
-0 0 1
-0 0 1
-0 0 1
-0 0 1
-0.39795962 -0.18693447 -0.59722155
-0 0 1
-0 0 1
-0 0 1
-0 0 1
-0 0 1
-0 0 1
-0 0 1
-0 0 1
-0 0 1
-0 0 1
-0 0 1
-0 0 1
-0 0 1
-0 0 1
-0 0 1
-0 0 1
-0 0 1
-0 0 1
0.17108999 -0.071864486 -0.22466424
0.16965796 -0.071711168 -0.22425938
0.17136899 -0.07289283 -0.22803123
0.16600202 -0.071059704 -0.2223721
0.16568546 -0.071378835 -0.22344743
0.17014182 -0.073771574 -0.23101781
0.16314317 -0.071196362 -0.2230316
0.16353799 -0.071835138 -0.22511224
0.16148151 -0.071398467 -0.22382389
0.15607962 -0.06946706 -0.21784785
0.16334517 -0.073185451 -0.2295924
0.16143538 -0.07281521 -0.22851504
0.16034488 -0.072812006 -0.22859001
0.16299592 -0.074519351 -0.23403794
0.15916464 -0.073266149 -0.23018926
0.16146876 -0.074839376 -0.23522197
0.1639854 -0.076533653 -0.24063988
0.15843189 -0.074458838 -0.23420727
0.16026995 -0.075853117 -0.2386865
0.1574147 -0.075030155 -0.23619029
0.15804003 -0.075866267 -0.23891753
0.15568413 -0.075273007 -0.23714447
0.1547392 -0.075358264 -0.23750916
0.15902215 -0.07800936 -0.24596494
0.15770584 -0.077932484 -0.24582347
0.15591449 -0.077617988 -0.24493268
0.15936647 -0.07992854 -0.25232884
0.15549065 -0.078570999 -0.2481471
0.15495583 -0.07889393 -0.24927199
0.15227835 -0.078122579 -0.24693945
0.15044634 -0.077776425 -0.2459501
0.15755408 -0.082082316 -0.25967774
0.15659019 -0.082217492 -0.26021743
0.15507789 -0.082064599 -0.25984594
0.15428652 -0.082293794 -0.260685
0.15482804 -0.083243303 -0.26380801
